ncols         73
nrows         61
xllcorner     793250.000000
yllcorner     5154750.000000
cellsize      250.000000
NODATA_value  -9999.0
-9999.0 -9999.0 -9999.0 -9999.0 -9999.0 -9999.0 -9999.0 -9999.0 -9999.0 -9999.0 -9999.0 -9999.0 -9999.0 -9999.0 -9999.0 -9999.0 -9999.0 -9999.0 -9999.0 -9999.0 -9999.0 -9999.0 -9999.0 -9999.0 -9999.0 -9999.0 -9999.0 -9999.0 -9999.0 -9999.0 -9999.0 -9999.0 -9999.0 -9999.0 -9999.0 -9999.0 -9999.0 -9999.0 -9999.0 -9999.0 -9999.0 -9999.0 -9999.0 -9999.0 -9999.0 -9999.0 -9999.0 -9999.0 -9999.0 -9999.0 -9999.0 -9999.0 -9999.0 -9999.0 -9999.0 -9999.0 -9999.0 -9999.0 -9999.0 -9999.0 -9999.0 -9999.0 -9999.0 -9999.0 -9999.0 -9999.0 -9999.0 -9999.0 -9999.0 -9999.0 -9999.0 -9999.0 -9999.0
-9999.0 -9999.0 -9999.0 -9999.0 -9999.0 -9999.0 -9999.0 -9999.0 -9999.0 -9999.0 -9999.0 -9999.0 -9999.0 -9999.0 -9999.0 -9999.0 -9999.0 -9999.0 -9999.0 -9999.0 -9999.0 -9999.0 -9999.0 -9999.0 -9999.0 -9999.0 -9999.0 -9999.0 -9999.0 -9999.0 -9999.0 -9999.0 -9999.0 -9999.0 -9999.0 -9999.0 -9999.0 -9999.0 -9999.0 -9999.0 -9999.0 -9999.0 -9999.0 -9999.0 -9999.0 -9999.0 -9999.0 -9999.0 -9999.0 -9999.0 -9999.0 -9999.0 -9999.0 -9999.0 -9999.0 -9999.0 -9999.0 -9999.0 -9999.0 -9999.0 -9999.0 -9999.0 -9999.0 -9999.0 -9999.0 -9999.0 -9999.0 -9999.0 -9999.0 -9999.0 -9999.0 -9999.0 -9999.0
-9999.0 -9999.0 -9999.0 -9999.0 -9999.0 -9999.0 -9999.0 -9999.0 -9999.0 -9999.0 -9999.0 -9999.0 -9999.0 -9999.0 -9999.0 -9999.0 -9999.0 -9999.0 -9999.0 -9999.0 -9999.0 -9999.0 -9999.0 -9999.0 -9999.0 -9999.0 -9999.0 -9999.0 -9999.0 -9999.0 -9999.0 -9999.0 -9999.0 -9999.0 -9999.0 -9999.0 -9999.0 -9999.0 -9999.0 -9999.0 -9999.0 -9999.0 -9999.0 -9999.0 -9999.0 -9999.0 -9999.0 -9999.0 -9999.0 -9999.0 -9999.0 -9999.0 -9999.0 -9999.0 -9999.0 -9999.0 -9999.0 -9999.0 -9999.0 -9999.0 -9999.0 -9999.0 -9999.0 -9999.0 -9999.0 -9999.0 -9999.0 -9999.0 -9999.0 -9999.0 -9999.0 -9999.0 -9999.0
-9999.0 -9999.0 -9999.0 -9999.0 -9999.0 -9999.0 -9999.0 -9999.0 -9999.0 -9999.0 -9999.0 -9999.0 -9999.0 -9999.0 -9999.0 -9999.0 -9999.0 -9999.0 -9999.0 -9999.0 -9999.0 -9999.0 -9999.0 -9999.0 -9999.0 -9999.0 -9999.0 -9999.0 -9999.0 -9999.0 -9999.0 -9999.0 -9999.0 -9999.0 -9999.0 -9999.0 -9999.0 -9999.0 -9999.0 -9999.0 -9999.0 -9999.0 -9999.0 -9999.0 -9999.0 -9999.0 -9999.0 -9999.0 -9999.0 -9999.0 -9999.0 -9999.0 -9999.0 -9999.0 -9999.0 -9999.0 -9999.0 -9999.0 -9999.0 -9999.0 -9999.0 -9999.0 -9999.0 -9999.0 -9999.0 -9999.0 -9999.0 -9999.0 -9999.0 -9999.0 -9999.0 -9999.0 -9999.0
2240.440000 -9999.0 -9999.0 -9999.0 -9999.0 -9999.0 -9999.0 -9999.0 -9999.0 -9999.0 -9999.0 -9999.0 -9999.0 -9999.0 -9999.0 -9999.0 -9999.0 -9999.0 -9999.0 -9999.0 2345.930000 2417.280000 -9999.0 -9999.0 2544.400000 2454.350000 2248.210000 2013.230000 1859.180000 1852.940000 1809.240000 1801.460000 -9999.0 -9999.0 -9999.0 -9999.0 -9999.0 -9999.0 -9999.0 -9999.0 -9999.0 -9999.0 -9999.0 -9999.0 -9999.0 -9999.0 -9999.0 -9999.0 -9999.0 -9999.0 -9999.0 -9999.0 -9999.0 -9999.0 -9999.0 -9999.0 -9999.0 -9999.0 -9999.0 -9999.0 -9999.0 -9999.0 -9999.0 -9999.0 -9999.0 -9999.0 -9999.0 -9999.0 -9999.0 -9999.0 -9999.0 -9999.0 -9999.0
2104.410000 2191.520000 -9999.0 -9999.0 -9999.0 -9999.0 -9999.0 -9999.0 -9999.0 -9999.0 2430.480000 2131.210000 1986.880000 2142.770000 2199.270000 2502.590000 -9999.0 -9999.0 -9999.0 2521.490000 2468.870000 2467.080000 2231.610000 2338.390000 2389.070000 2407.190000 2252.000000 2034.430000 1827.560000 1708.330000 1680.430000 1616.170000 1555.310000 1496.970000 -9999.0 -9999.0 -9999.0 -9999.0 1775.230000 1800.000000 1776.740000 1787.740000 -9999.0 -9999.0 -9999.0 -9999.0 -9999.0 -9999.0 -9999.0 -9999.0 -9999.0 -9999.0 -9999.0 -9999.0 -9999.0 -9999.0 -9999.0 -9999.0 -9999.0 -9999.0 -9999.0 -9999.0 -9999.0 -9999.0 -9999.0 -9999.0 -9999.0 -9999.0 -9999.0 -9999.0 -9999.0 -9999.0 -9999.0
2054.580000 1996.130000 2077.000000 2082.740000 -9999.0 -9999.0 -9999.0 -9999.0 -9999.0 2296.360000 2260.120000 2146.360000 1887.480000 1881.050000 2190.870000 2472.340000 2560.190000 2374.670000 2430.500000 2386.500000 2356.810000 2362.020000 2230.110000 2147.960000 2080.200000 2026.820000 2101.170000 1962.490000 1822.210000 1784.080000 1751.560000 1702.320000 1632.720000 1465.630000 1365.750000 1409.390000 -9999.0 1612.060000 1687.630000 1700.850000 1677.660000 1702.000000 1653.440000 1567.440000 1604.500000 -9999.0 -9999.0 -9999.0 -9999.0 -9999.0 1703.500000 1659.570000 1667.490000 1713.420000 -9999.0 -9999.0 2165.730000 2100.660000 2025.000000 1962.580000 -9999.0 -9999.0 -9999.0 -9999.0 -9999.0 -9999.0 -9999.0 -9999.0 -9999.0 -9999.0 -9999.0 2175.430000 2094.440000
1914.730000 1878.480000 1926.870000 1978.850000 1872.840000 1932.530000 2076.330000 2137.420000 2248.290000 2121.690000 2050.160000 2081.670000 1797.640000 1890.660000 2135.400000 2337.780000 2434.110000 2293.420000 2293.780000 2263.900000 2195.740000 2178.620000 2125.400000 2078.670000 2013.940000 1954.700000 1818.660000 1840.140000 1812.730000 1731.730000 1692.110000 1650.160000 1578.660000 1452.390000 1350.770000 1283.460000 1314.630000 1355.150000 1469.060000 1469.900000 1528.070000 1504.220000 1500.630000 1522.200000 1494.800000 1466.040000 1500.130000 1525.000000 1523.230000 1571.490000 1655.210000 1705.020000 1779.770000 1969.180000 2055.450000 2185.310000 2190.280000 2078.220000 2021.990000 1913.320000 1857.750000 -9999.0 -9999.0 -9999.0 -9999.0 -9999.0 -9999.0 -9999.0 -9999.0 1954.260000 2028.840000 2047.140000 1978.120000
1750.590000 1737.090000 1832.290000 1900.990000 1891.160000 1808.430000 1771.570000 1867.710000 1891.220000 1891.360000 1865.730000 1763.590000 1691.850000 1827.370000 2090.590000 2235.740000 2209.190000 2199.740000 2197.960000 2279.060000 2156.280000 2070.940000 2040.410000 2012.340000 1948.510000 1836.890000 1796.640000 1723.390000 1710.360000 1637.770000 1456.800000 1389.790000 1388.460000 1325.860000 1239.090000 1158.710000 1126.480000 1169.390000 1213.140000 1208.150000 1246.620000 1327.240000 1390.460000 1363.180000 1378.740000 1401.630000 1413.040000 1434.290000 1565.610000 1612.320000 1711.410000 1847.960000 1834.650000 1917.260000 1978.170000 1927.450000 1872.760000 1782.280000 1790.890000 1717.900000 1787.670000 1764.210000 1729.910000 1676.440000 1798.140000 1960.420000 1995.040000 1896.240000 1888.760000 1818.340000 1941.760000 1943.800000 1779.070000
1690.830000 1676.040000 1718.960000 1815.430000 1820.680000 1803.800000 1655.240000 1615.890000 1604.580000 1566.740000 1517.940000 1524.130000 1528.480000 1736.010000 2105.430000 2142.070000 2129.040000 2127.390000 2154.240000 2255.240000 2208.470000 2061.060000 1983.860000 1999.410000 1892.590000 1857.270000 1796.400000 1846.750000 1775.980000 1661.090000 1513.370000 1438.390000 1378.820000 1274.640000 1144.460000 1045.540000 1015.540000 1024.490000 1056.870000 1058.590000 1080.390000 1098.390000 1111.710000 1134.570000 1195.580000 1232.020000 1284.690000 1427.640000 1458.830000 1434.680000 1532.820000 1811.170000 1737.070000 1712.590000 1783.210000 1805.220000 1645.530000 1520.500000 1506.780000 1517.130000 1554.830000 1549.180000 1625.000000 1625.800000 1699.030000 1870.010000 1947.790000 1827.000000 1717.700000 1725.260000 1849.270000 1828.890000 1677.520000
1725.440000 1546.900000 1589.660000 1728.540000 1703.930000 1664.150000 1569.000000 1445.410000 1448.470000 1404.970000 1343.210000 1360.760000 1497.710000 1777.530000 1847.400000 1924.070000 1915.960000 1957.360000 2127.060000 2117.350000 2111.420000 2147.210000 1985.000000 1939.910000 1862.490000 1869.980000 1899.080000 1889.870000 1746.180000 1623.360000 1496.690000 1433.990000 1362.810000 1265.250000 1163.180000 1052.940000 1034.490000 1015.540000 1003.770000 1003.770000 974.480000 974.480000 974.480000 974.480000 1009.030000 1205.250000 1290.060000 1315.190000 1235.470000 1174.880000 1227.280000 1304.000000 1310.560000 1456.600000 1484.940000 1417.690000 1399.090000 1328.360000 1307.330000 1401.040000 1471.450000 1504.510000 1566.490000 1635.890000 1726.810000 1830.640000 1898.060000 1797.240000 1698.520000 1588.800000 1694.560000 1690.310000 1577.520000
1672.780000 1543.860000 1486.100000 1645.530000 1615.750000 1520.400000 1458.360000 1365.900000 1330.480000 1311.040000 1326.500000 1388.520000 1436.850000 1562.420000 1609.990000 1688.440000 1849.920000 1959.190000 2013.930000 1972.760000 2044.170000 2141.620000 1995.540000 1876.340000 1803.050000 1813.390000 1788.310000 1717.440000 1659.590000 1572.640000 1433.990000 1434.450000 1335.280000 1228.780000 1124.560000 1210.270000 1194.220000 1132.340000 1162.730000 1129.580000 1087.700000 1045.810000 1037.480000 1033.420000 970.770000 968.340000 1000.480000 998.870000 954.710000 946.280000 919.860000 947.900000 996.380000 1024.630000 1058.060000 1119.380000 1181.040000 1176.980000 1321.320000 1405.260000 1504.430000 1540.110000 1586.080000 1709.110000 1853.310000 1960.260000 1956.460000 1936.560000 1836.190000 1656.580000 1522.380000 1523.010000 1401.180000
1615.120000 1538.490000 1423.650000 1528.860000 1522.050000 1420.370000 1328.680000 1275.550000 1306.450000 1359.830000 1450.800000 1539.490000 1552.290000 1556.930000 1556.930000 1656.770000 1773.010000 1837.220000 1866.640000 1884.500000 2093.190000 2170.670000 2033.360000 1958.520000 1839.200000 1759.800000 1673.270000 1662.060000 1634.130000 1591.020000 1525.410000 1489.180000 1367.150000 1230.590000 1181.500000 1308.540000 1307.700000 1290.190000 1332.140000 1293.060000 1210.350000 1206.950000 1218.430000 1193.230000 1133.220000 1041.350000 968.340000 927.700000 917.150000 917.150000 917.150000 917.150000 917.150000 917.150000 927.190000 1011.130000 1074.800000 1163.300000 1289.020000 1392.530000 1511.440000 1584.520000 1623.430000 1693.690000 1818.650000 1922.730000 1949.160000 1902.920000 1859.810000 1720.580000 1542.050000 1429.810000 1479.120000
1597.670000 1559.470000 1410.600000 1392.890000 1383.600000 1306.890000 1243.880000 1290.500000 1356.030000 1452.720000 1564.460000 1653.610000 1676.630000 1680.160000 1677.330000 1630.710000 1673.760000 1718.280000 1790.320000 1906.580000 2101.580000 2153.320000 2133.220000 2053.570000 1948.230000 1874.850000 1835.440000 1763.380000 1708.130000 1670.180000 1568.450000 1484.240000 1362.500000 1234.420000 1249.460000 1363.730000 1399.580000 1406.710000 1449.700000 1449.980000 1300.850000 1342.070000 1344.610000 1338.640000 1246.060000 1166.700000 1127.460000 1077.230000 1052.550000 1027.830000 975.940000 951.620000 947.310000 921.090000 917.150000 917.150000 1045.760000 1184.480000 1298.930000 1425.480000 1489.610000 1518.130000 1582.460000 1668.620000 1764.620000 1863.530000 1938.400000 1951.660000 1758.790000 1681.160000 1543.840000 1527.330000 1553.910000
1511.750000 1496.590000 1415.120000 1315.910000 1263.240000 1231.960000 1226.380000 1322.580000 1372.790000 1500.190000 1586.880000 1668.890000 1767.270000 1814.500000 1760.920000 1725.080000 1748.120000 1811.570000 1977.050000 1995.520000 2036.020000 2083.080000 2051.460000 2018.020000 1975.990000 1958.130000 1901.020000 1861.210000 1835.500000 1828.570000 1746.040000 1580.910000 1410.260000 1255.850000 1302.010000 1426.670000 1506.370000 1462.130000 1533.000000 1484.770000 1440.590000 1439.170000 1454.370000 1415.400000 1374.610000 1305.030000 1266.450000 1189.950000 1183.310000 1139.210000 1122.650000 1132.420000 1092.180000 1068.340000 969.430000 917.150000 1063.990000 1207.000000 1316.430000 1395.860000 1395.970000 1424.790000 1506.600000 1550.280000 1620.660000 1753.250000 1938.950000 1974.940000 1802.250000 1708.840000 1585.570000 1602.240000 1649.090000
1396.880000 1364.100000 1323.650000 1238.290000 1183.790000 1226.070000 1320.730000 1405.420000 1422.520000 1444.810000 1539.960000 1632.410000 1781.680000 1906.380000 1922.970000 1920.120000 1925.050000 1957.320000 2024.970000 2025.000000 2014.190000 1990.030000 1954.470000 1935.730000 1945.220000 1923.950000 1918.850000 1888.860000 1867.120000 1829.800000 1741.690000 1592.490000 1417.490000 1269.950000 1409.370000 1525.910000 1598.470000 1614.290000 1638.670000 1592.350000 1579.080000 1592.520000 1595.990000 1500.630000 1451.280000 1445.150000 1388.170000 1309.930000 1279.190000 1208.360000 1161.390000 1150.000000 1116.150000 1076.910000 941.610000 917.150000 1038.960000 1140.600000 1300.400000 1347.560000 1331.630000 1319.720000 1371.400000 1454.810000 1540.040000 1665.590000 1846.300000 1952.490000 1874.870000 1741.690000 1675.600000 1675.630000 1717.050000
1209.120000 1170.360000 1170.360000 1170.360000 1230.930000 1373.840000 1429.740000 1507.360000 1591.880000 1562.910000 1493.890000 1579.750000 1704.320000 1858.830000 1864.050000 1863.660000 1878.270000 1914.940000 2001.630000 1980.980000 1898.960000 1881.250000 1856.400000 1851.620000 1848.960000 1809.280000 1800.530000 1759.870000 1722.390000 1673.660000 1576.590000 1481.660000 1336.480000 1363.090000 1434.320000 1579.920000 1697.080000 1783.310000 1803.020000 1773.180000 1776.360000 1728.760000 1676.610000 1622.370000 1606.790000 1540.270000 1494.190000 1403.760000 1348.840000 1281.740000 1182.840000 1129.370000 1074.740000 1056.840000 928.030000 839.510000 899.390000 1056.050000 1175.680000 1221.460000 1255.310000 1279.540000 1322.250000 1400.270000 1467.520000 1663.660000 1845.600000 1999.380000 1965.840000 1833.370000 1775.360000 1826.120000 1839.670000
1145.770000 1174.080000 1238.590000 1314.670000 1389.790000 1512.290000 1569.670000 1620.280000 1699.800000 1700.110000 1689.240000 1686.950000 1635.090000 1711.200000 1736.730000 1775.640000 1809.710000 1925.860000 2099.770000 2076.720000 1888.940000 1796.890000 1744.050000 1718.660000 1727.540000 1713.110000 1669.040000 1638.630000 1592.810000 1552.610000 1455.710000 1373.220000 1344.550000 1400.190000 1495.010000 1607.100000 1725.730000 1911.550000 1969.440000 1965.000000 1902.570000 1885.810000 1799.150000 1725.900000 1712.800000 1668.380000 1580.260000 1476.350000 1346.500000 1280.460000 1179.100000 1050.690000 970.260000 923.140000 881.430000 839.510000 852.110000 1001.690000 1094.540000 1166.020000 1197.410000 1200.300000 1227.720000 1344.100000 1479.880000 1671.260000 1873.520000 1997.530000 2019.110000 1943.090000 1917.480000 1908.230000 2004.800000
1273.530000 1276.010000 1290.270000 1374.690000 1446.130000 1537.130000 1580.420000 1588.790000 1653.350000 1708.370000 1747.720000 1739.560000 1739.940000 1774.050000 1805.980000 1852.800000 1951.080000 2067.560000 2182.920000 2153.770000 1981.170000 1901.980000 1853.730000 1766.200000 1709.150000 1647.390000 1628.060000 1596.560000 1529.760000 1467.910000 1450.460000 1457.310000 1485.300000 1478.990000 1518.290000 1593.690000 1730.240000 1867.600000 1980.640000 2022.090000 1955.240000 1881.390000 1803.510000 1741.870000 1685.410000 1617.990000 1542.310000 1450.870000 1322.600000 1219.610000 1154.180000 1027.360000 935.220000 902.750000 839.510000 839.510000 842.640000 961.090000 1056.230000 1069.380000 1080.410000 1154.830000 1227.000000 1370.750000 1505.620000 1654.530000 1779.250000 1928.090000 2025.000000 1985.320000 1956.060000 1939.160000 1920.830000
1252.860000 1219.530000 1228.990000 1273.250000 1356.920000 1395.770000 1431.160000 1459.240000 1532.130000 1607.940000 1646.400000 1660.420000 1785.840000 1875.570000 1971.520000 2026.630000 2076.680000 2135.940000 2224.760000 2225.000000 2199.450000 2085.460000 2004.120000 1926.950000 1901.290000 1803.690000 1804.130000 1741.260000 1673.400000 1592.090000 1572.760000 1601.540000 1628.710000 1628.430000 1660.860000 1685.770000 1729.130000 1814.720000 1882.520000 1951.560000 1849.800000 1782.050000 1722.570000 1614.180000 1550.610000 1501.380000 1449.710000 1378.290000 1286.150000 1186.960000 1089.820000 1026.130000 1010.080000 929.650000 858.840000 839.510000 852.380000 916.270000 957.620000 982.050000 1073.380000 1154.360000 1232.520000 1442.130000 1587.750000 1715.650000 1845.960000 1976.150000 1999.930000 1959.890000 1932.950000 1900.580000 1928.790000
1067.600000 1081.070000 1099.600000 1135.300000 1174.220000 1249.380000 1293.030000 1320.020000 1412.150000 1459.950000 1529.390000 1636.220000 1758.500000 1851.110000 1940.620000 1970.350000 1995.570000 2031.980000 2153.650000 2201.780000 2197.420000 2174.290000 2111.170000 2102.810000 2103.990000 1986.580000 1897.760000 1849.870000 1823.880000 1775.050000 1766.360000 1783.080000 1783.410000 1765.110000 1814.800000 1874.950000 1952.410000 2039.100000 2082.120000 2029.440000 1969.970000 1970.850000 1870.350000 1749.120000 1679.240000 1623.130000 1560.970000 1427.310000 1356.730000 1294.040000 1158.160000 1133.810000 1081.800000 988.200000 919.050000 839.510000 852.570000 884.790000 930.820000 971.990000 1072.070000 1136.770000 1247.840000 1426.800000 1540.090000 1628.110000 1805.500000 1951.120000 1973.080000 1934.680000 1808.310000 1745.030000 1869.920000
881.460000 914.080000 954.030000 997.250000 1054.390000 1109.000000 1157.430000 1202.160000 1299.130000 1381.070000 1438.550000 1556.300000 1671.610000 1736.050000 1771.740000 1817.440000 1890.200000 1923.400000 2075.610000 2112.160000 2074.170000 2063.410000 1980.810000 2095.780000 2145.130000 2146.900000 2080.800000 2068.460000 2034.790000 1965.560000 1973.760000 1994.460000 1981.900000 1941.940000 1960.270000 1970.850000 1998.460000 2016.410000 2082.520000 2027.030000 1942.790000 1969.610000 1959.930000 1969.430000 1875.850000 1797.000000 1721.420000 1603.980000 1445.980000 1392.520000 1256.830000 1201.710000 1120.930000 1033.460000 939.090000 847.440000 839.510000 865.280000 929.350000 971.700000 1091.990000 1281.470000 1389.190000 1534.300000 1610.470000 1680.780000 1796.410000 1897.970000 1907.060000 1822.570000 1704.930000 1625.880000 1729.240000
849.870000 849.870000 849.870000 849.870000 946.460000 986.910000 1020.740000 1132.020000 1223.800000 1266.420000 1413.380000 1528.240000 1578.210000 1594.010000 1628.640000 1709.710000 1788.560000 1896.700000 1992.590000 2079.770000 2041.280000 1972.840000 1924.880000 1959.650000 2111.830000 2126.510000 2075.000000 2075.000000 2067.000000 2023.030000 2034.650000 2070.680000 2013.330000 1909.990000 1875.070000 1861.430000 1816.780000 1844.140000 1938.130000 1995.750000 1949.150000 1921.670000 1945.680000 1968.030000 1975.000000 1969.540000 1909.700000 1689.730000 1563.100000 1478.610000 1365.100000 1301.010000 1176.680000 1064.540000 978.920000 853.940000 812.970000 824.250000 935.130000 1058.780000 1222.690000 1373.690000 1506.780000 1673.320000 1764.600000 1772.550000 1771.500000 1809.720000 1755.520000 1649.040000 1567.230000 1508.110000 1574.710000
995.820000 966.510000 935.550000 867.550000 797.420000 835.270000 938.990000 1053.480000 1086.400000 1253.460000 1326.560000 1422.680000 1471.400000 1463.030000 1469.410000 1573.410000 1703.800000 1809.390000 1942.030000 2037.310000 2010.540000 1850.510000 1875.840000 1972.490000 2079.390000 2054.240000 1932.610000 1990.310000 2049.660000 1979.560000 1895.180000 2001.130000 2033.830000 1870.600000 1719.810000 1686.260000 1625.790000 1685.000000 1724.470000 1810.440000 1815.700000 1838.750000 1850.700000 1938.990000 1959.300000 1932.700000 1905.840000 1811.940000 1715.060000 1588.870000 1484.070000 1409.930000 1313.990000 1139.680000 1029.580000 845.150000 787.500000 796.110000 940.760000 1123.420000 1242.910000 1350.560000 1511.520000 1653.260000 1738.830000 1715.250000 1739.310000 1795.680000 1690.980000 1543.690000 1466.410000 1384.740000 1510.870000
1146.210000 1130.250000 1072.920000 1003.050000 940.120000 797.420000 850.080000 911.180000 1067.180000 1134.970000 1219.120000 1293.120000 1362.740000 1344.170000 1370.500000 1474.880000 1625.470000 1724.690000 1907.400000 1974.290000 1906.180000 1763.160000 1825.270000 1955.170000 2003.480000 2023.980000 1874.940000 1908.060000 1918.030000 1863.840000 1857.080000 2035.670000 2077.810000 1960.330000 1777.220000 1569.130000 1488.410000 1525.090000 1611.990000 1683.820000 1674.820000 1711.200000 1728.980000 1795.380000 1922.480000 1926.980000 1884.410000 1808.380000 1756.700000 1676.860000 1597.740000 1456.740000 1369.800000 1214.590000 1063.560000 883.580000 761.960000 771.010000 888.220000 1055.300000 1168.720000 1320.090000 1485.010000 1640.520000 1663.060000 1592.670000 1657.410000 1714.890000 1619.280000 1540.080000 1421.710000 1344.070000 1474.530000
1257.760000 1198.390000 1154.160000 1076.940000 1010.860000 887.110000 751.700000 810.610000 977.370000 996.040000 1108.920000 1211.510000 1235.060000 1210.300000 1329.880000 1418.810000 1583.340000 1740.060000 1893.940000 1914.200000 1835.280000 1653.320000 1753.660000 1830.380000 1882.400000 1945.650000 1906.220000 1783.080000 1728.490000 1724.340000 1912.960000 2012.040000 1983.970000 1916.000000 1776.100000 1598.000000 1454.300000 1375.750000 1465.570000 1486.350000 1590.290000 1607.090000 1572.180000 1692.510000 1812.290000 1872.960000 1809.960000 1786.820000 1762.280000 1716.340000 1580.480000 1436.520000 1347.970000 1242.290000 1101.440000 911.960000 732.460000 745.110000 856.890000 996.180000 1101.860000 1260.740000 1434.520000 1538.690000 1553.250000 1469.880000 1561.970000 1635.640000 1591.080000 1512.490000 1361.740000 1281.620000 1378.550000
1299.330000 1226.770000 1164.150000 1096.520000 1021.120000 922.230000 814.130000 751.700000 812.290000 895.470000 1014.800000 1107.560000 1105.830000 1178.470000 1256.330000 1408.100000 1573.160000 1762.400000 1866.180000 1852.580000 1736.000000 1596.530000 1644.720000 1687.140000 1803.290000 1881.490000 1905.730000 1783.810000 1620.780000 1755.310000 1905.300000 1972.860000 1864.810000 1775.110000 1654.060000 1501.820000 1410.610000 1283.090000 1304.850000 1339.500000 1413.890000 1426.620000 1476.840000 1617.720000 1790.720000 1828.900000 1691.590000 1685.360000 1669.020000 1699.350000 1615.020000 1450.660000 1308.110000 1177.510000 1092.680000 894.530000 714.980000 721.920000 793.790000 920.080000 1081.730000 1216.980000 1352.660000 1421.340000 1398.760000 1403.550000 1456.780000 1520.390000 1521.180000 1452.980000 1335.100000 1169.470000 1321.160000
1222.980000 1200.460000 1107.170000 1067.640000 1004.560000 944.340000 840.920000 759.140000 751.700000 775.090000 890.320000 994.490000 996.150000 1133.040000 1263.900000 1426.350000 1606.800000 1755.920000 1826.440000 1807.430000 1656.780000 1549.570000 1504.850000 1612.570000 1750.290000 1784.490000 1822.320000 1735.410000 1575.220000 1715.190000 1874.130000 1926.540000 1798.060000 1685.220000 1562.530000 1472.940000 1448.080000 1339.780000 1167.250000 1277.810000 1253.020000 1367.900000 1504.900000 1705.040000 1755.220000 1741.590000 1675.110000 1554.140000 1539.820000 1553.910000 1565.810000 1508.120000 1308.460000 1132.890000 995.830000 869.370000 710.860000 697.700000 788.950000 935.320000 1084.790000 1175.860000 1297.040000 1335.320000 1311.760000 1322.170000 1346.910000 1398.690000 1410.930000 1377.830000 1255.600000 1115.370000 1280.190000
1158.630000 1165.680000 1100.210000 1029.550000 965.290000 919.710000 856.230000 784.080000 762.440000 731.100000 846.410000 886.340000 962.470000 1102.410000 1247.480000 1397.730000 1522.910000 1607.090000 1732.290000 1737.050000 1634.460000 1504.370000 1377.960000 1528.190000 1607.090000 1621.400000 1632.100000 1581.100000 1522.600000 1687.330000 1856.330000 1897.650000 1835.700000 1798.770000 1680.640000 1603.980000 1487.140000 1354.720000 1173.780000 1133.960000 1276.840000 1396.010000 1543.510000 1685.080000 1683.900000 1606.290000 1588.070000 1532.840000 1475.930000 1427.930000 1444.010000 1426.060000 1321.170000 1144.330000 1027.860000 873.480000 734.930000 676.980000 769.830000 939.990000 1104.580000 1175.270000 1205.680000 1228.890000 1202.480000 1228.760000 1232.910000 1283.930000 1293.570000 1284.860000 1177.940000 1085.420000 1226.640000
1094.400000 1067.420000 1055.020000 1002.770000 949.310000 871.570000 853.920000 852.530000 792.880000 737.350000 712.410000 842.110000 961.700000 1093.280000 1234.900000 1362.590000 1378.230000 1456.630000 1613.530000 1658.620000 1580.240000 1476.090000 1323.570000 1405.880000 1414.210000 1435.550000 1436.760000 1421.780000 1508.060000 1700.450000 1879.180000 1959.170000 1944.010000 1835.740000 1671.360000 1513.300000 1417.780000 1293.690000 1118.220000 1141.860000 1220.320000 1343.990000 1484.040000 1571.370000 1617.740000 1555.230000 1530.180000 1469.660000 1428.620000 1411.260000 1399.890000 1343.710000 1279.320000 1136.530000 1047.240000 898.000000 739.270000 666.190000 735.460000 909.020000 1087.370000 1172.110000 1173.930000 1158.830000 1131.980000 1135.420000 1135.800000 1190.490000 1194.930000 1168.340000 1106.220000 1031.760000 1133.230000
1154.720000 1148.860000 1084.910000 1061.450000 1016.070000 975.600000 921.100000 901.260000 830.930000 762.270000 706.140000 773.090000 914.110000 1001.640000 1121.260000 1185.970000 1208.850000 1361.400000 1537.590000 1535.830000 1464.150000 1335.450000 1252.920000 1207.370000 1246.680000 1309.810000 1421.780000 1509.870000 1626.660000 1768.110000 1897.160000 1923.500000 1873.410000 1840.690000 1734.690000 1622.600000 1483.250000 1308.190000 1161.230000 1029.730000 1091.860000 1190.950000 1332.040000 1509.920000 1529.060000 1508.460000 1453.040000 1414.180000 1326.340000 1377.110000 1372.360000 1349.050000 1289.650000 1178.280000 1035.350000 903.080000 733.160000 656.590000 672.830000 814.950000 1015.930000 1079.720000 1095.990000 1097.920000 1058.140000 1038.170000 1054.180000 1066.750000 1091.570000 1064.480000 1008.410000 947.850000 1004.250000
1213.150000 1162.690000 1133.050000 1117.960000 1067.580000 1035.020000 977.390000 926.720000 848.020000 794.990000 775.000000 706.140000 758.800000 895.330000 928.220000 1046.350000 1190.350000 1273.180000 1410.340000 1443.370000 1364.450000 1187.220000 1172.710000 1283.240000 1344.000000 1417.240000 1528.750000 1610.020000 1721.130000 1802.360000 1825.410000 1830.130000 1807.700000 1836.250000 1744.860000 1607.890000 1477.120000 1339.480000 1219.230000 1084.990000 993.960000 1131.580000 1279.940000 1388.510000 1415.200000 1432.760000 1311.280000 1301.860000 1216.850000 1319.010000 1299.140000 1297.560000 1267.480000 1165.160000 1047.290000 896.520000 720.570000 656.590000 693.050000 803.180000 946.380000 989.340000 966.980000 941.780000 928.000000 905.960000 977.630000 973.340000 957.240000 949.740000 897.240000 877.830000 904.900000
1292.200000 1260.650000 1255.400000 1215.810000 1166.890000 1132.080000 1057.020000 982.890000 880.310000 876.950000 797.870000 748.890000 706.140000 763.710000 895.890000 1031.110000 1135.580000 1266.060000 1363.380000 1348.600000 1251.150000 1135.210000 1193.160000 1319.830000 1448.250000 1524.800000 1613.100000 1712.490000 1786.040000 1827.770000 1743.270000 1670.590000 1813.290000 1821.580000 1669.070000 1479.550000 1350.890000 1281.800000 1184.220000 1058.490000 946.800000 1084.410000 1213.890000 1273.320000 1300.750000 1347.750000 1226.690000 1178.500000 1086.980000 1234.630000 1231.610000 1181.490000 1144.810000 1070.520000 957.490000 819.900000 692.470000 641.180000 685.290000 808.260000 892.150000 888.410000 892.420000 875.100000 868.500000 845.130000 899.290000 888.040000 848.680000 850.490000 833.830000 859.290000 818.780000
1414.010000 1389.330000 1368.350000 1338.520000 1256.910000 1180.330000 1106.610000 1021.670000 980.320000 918.200000 864.530000 764.310000 706.140000 746.710000 859.220000 998.670000 1137.090000 1252.370000 1282.500000 1233.650000 1140.730000 1120.340000 1183.000000 1329.890000 1460.280000 1606.660000 1668.540000 1728.850000 1750.950000 1745.510000 1662.870000 1608.460000 1700.920000 1638.440000 1629.470000 1494.940000 1359.150000 1213.300000 1118.700000 1050.190000 921.020000 1005.530000 1081.920000 1143.310000 1235.030000 1230.020000 1119.860000 1013.960000 1059.820000 1115.700000 1115.040000 1050.020000 1042.580000 961.870000 828.890000 738.950000 626.850000 621.980000 639.300000 701.550000 749.290000 754.560000 781.440000 810.030000 789.300000 763.180000 768.260000 772.890000 770.180000 772.150000 756.100000 761.800000 831.220000
1583.470000 1569.560000 1555.200000 1476.270000 1370.970000 1238.920000 1150.250000 1118.770000 1011.880000 945.300000 861.440000 787.470000 741.630000 688.190000 832.370000 998.060000 1123.970000 1230.840000 1243.040000 1159.260000 1027.940000 1191.390000 1292.110000 1377.510000 1482.480000 1617.660000 1658.020000 1710.610000 1672.550000 1588.730000 1567.570000 1554.110000 1598.550000 1529.670000 1479.900000 1482.100000 1361.730000 1290.680000 1224.530000 1113.740000 955.900000 884.160000 999.850000 1056.850000 1075.640000 1065.290000 1004.860000 890.000000 985.810000 1022.150000 1006.690000 933.270000 941.280000 847.930000 748.530000 681.970000 600.220000 606.270000 610.680000 628.890000 665.320000 676.590000 733.620000 727.120000 701.100000 697.230000 697.230000 697.230000 697.230000 719.030000 786.670000 804.400000 855.140000
1662.970000 1716.350000 1720.700000 1586.270000 1441.460000 1318.870000 1269.360000 1175.200000 1073.270000 957.700000 877.090000 779.980000 725.260000 680.470000 735.800000 899.410000 975.760000 1076.800000 1093.570000 1058.210000 1027.940000 1213.260000 1334.580000 1430.140000 1510.660000 1558.320000 1512.970000 1620.530000 1607.080000 1468.700000 1434.960000 1516.660000 1519.590000 1419.500000 1340.340000 1356.760000 1352.320000 1297.080000 1176.690000 1105.600000 963.210000 869.060000 912.390000 938.930000 950.130000 910.200000 891.170000 812.680000 841.530000 859.060000 877.280000 813.450000 833.080000 801.760000 705.450000 641.390000 594.950000 593.420000 598.300000 606.920000 614.910000 619.170000 629.220000 644.000000 651.850000 723.340000 756.780000 745.090000 773.670000 824.990000 835.330000 878.630000 894.700000
1627.270000 1667.580000 1684.740000 1631.500000 1529.460000 1415.980000 1331.510000 1207.020000 1065.700000 964.640000 878.010000 815.510000 737.330000 680.470000 693.850000 805.420000 877.060000 957.800000 977.530000 882.230000 1010.750000 1167.430000 1256.110000 1383.170000 1443.090000 1445.350000 1394.330000 1480.200000 1494.190000 1385.630000 1395.620000 1452.370000 1399.580000 1335.450000 1279.560000 1200.910000 1207.400000 1122.060000 1055.120000 969.430000 933.870000 840.750000 843.930000 834.010000 800.860000 813.230000 798.740000 752.700000 791.790000 766.000000 744.840000 699.890000 710.620000 718.020000 658.440000 589.820000 578.760000 578.550000 603.930000 616.190000 663.350000 715.260000 712.860000 697.690000 673.730000 777.780000 844.380000 843.850000 887.860000 958.130000 906.240000 970.340000 944.440000
1484.210000 1516.440000 1552.530000 1576.660000 1509.540000 1409.860000 1336.480000 1206.200000 1086.180000 1055.440000 978.340000 896.030000 796.260000 714.690000 680.470000 784.110000 858.300000 897.750000 882.230000 884.280000 976.680000 1080.750000 1154.440000 1273.250000 1292.940000 1279.060000 1278.920000 1350.700000 1365.170000 1286.090000 1283.940000 1295.300000 1258.260000 1217.480000 1161.290000 1120.990000 1071.800000 1016.990000 956.000000 905.000000 836.360000 780.470000 726.310000 753.280000 726.800000 728.440000 753.990000 719.290000 695.720000 688.150000 675.880000 661.990000 628.230000 633.190000 588.130000 571.820000 571.980000 579.720000 604.130000 635.610000 673.030000 798.600000 817.900000 774.050000 722.360000 769.450000 820.130000 847.260000 909.570000 1063.690000 1015.440000 1072.390000 1080.220000
1377.990000 1403.060000 1452.790000 1490.880000 1472.430000 1353.020000 1336.400000 1257.780000 1201.070000 1102.030000 1015.500000 942.870000 825.260000 710.850000 622.610000 695.570000 813.330000 889.280000 856.690000 857.310000 963.730000 1029.090000 1096.290000 1152.570000 1162.740000 1137.350000 1139.170000 1195.090000 1210.680000 1171.420000 1194.490000 1191.900000 1171.190000 1122.720000 1050.700000 1001.320000 947.500000 913.100000 846.780000 824.700000 794.720000 778.940000 761.860000 726.290000 726.290000 662.150000 662.150000 638.100000 610.810000 610.810000 602.770000 585.080000 576.580000 574.940000 569.770000 565.370000 568.670000 584.930000 677.490000 711.530000 795.730000 866.200000 888.050000 849.220000 812.930000 802.170000 794.420000 796.010000 960.410000 1092.590000 1102.930000 1189.140000 1250.470000
1277.600000 1286.410000 1322.950000 1394.490000 1396.330000 1283.520000 1265.060000 1237.000000 1224.300000 1128.230000 1027.960000 946.270000 844.230000 756.490000 622.610000 654.850000 762.410000 841.610000 819.250000 831.640000 981.660000 1031.380000 1059.840000 1075.590000 1076.250000 1058.820000 1053.520000 1070.440000 1088.490000 1044.880000 1055.180000 1060.840000 1064.130000 1029.630000 972.990000 931.760000 886.250000 846.780000 883.880000 887.460000 802.720000 844.630000 793.180000 773.870000 746.740000 726.820000 692.040000 690.440000 663.950000 642.800000 596.260000 572.900000 569.820000 565.610000 560.260000 558.770000 572.970000 615.940000 717.200000 855.400000 952.230000 989.050000 955.920000 975.170000 885.320000 922.070000 915.100000 879.540000 949.780000 972.740000 1082.780000 1161.390000 1256.120000
1155.470000 1151.040000 1196.520000 1222.650000 1239.020000 1110.880000 1203.980000 1171.380000 1157.840000 1122.170000 1016.410000 897.160000 800.370000 722.840000 622.610000 669.680000 749.330000 768.590000 746.070000 820.620000 943.840000 971.440000 973.970000 999.710000 963.730000 963.230000 949.640000 973.720000 977.660000 964.680000 952.940000 968.770000 971.180000 975.860000 986.750000 969.600000 916.950000 921.510000 982.090000 972.450000 843.880000 861.110000 799.960000 832.540000 855.450000 911.780000 860.540000 878.390000 843.840000 796.670000 714.960000 621.930000 586.180000 569.680000 553.280000 553.780000 579.000000 632.080000 808.990000 917.220000 1032.980000 1098.060000 1113.290000 1106.530000 986.170000 1043.100000 1094.060000 1083.790000 1000.720000 1008.190000 1124.110000 1212.790000 1290.130000
1000.520000 990.800000 1028.180000 1015.550000 997.450000 1008.870000 1111.570000 1112.890000 1108.250000 1086.550000 980.220000 878.000000 755.820000 673.660000 622.610000 698.530000 684.410000 683.990000 808.060000 825.740000 837.630000 855.100000 882.050000 884.810000 864.330000 859.550000 874.080000 879.750000 908.080000 908.080000 923.970000 978.320000 1047.430000 1101.720000 1091.050000 1104.690000 1044.840000 985.220000 1020.440000 973.030000 894.480000 997.560000 937.230000 979.470000 1001.720000 1018.450000 1026.840000 970.700000 882.350000 796.860000 698.240000 597.050000 580.530000 573.740000 553.280000 553.280000 611.680000 706.180000 798.020000 902.540000 1019.070000 1128.740000 1198.020000 1205.010000 1141.590000 1055.790000 1192.020000 1248.140000 1171.690000 1054.990000 1049.690000 1094.250000 1191.050000
896.050000 909.430000 924.980000 904.630000 872.850000 876.330000 1006.250000 1032.760000 1042.680000 1027.560000 921.410000 832.980000 754.040000 658.230000 622.610000 654.190000 666.010000 716.490000 756.990000 757.710000 757.710000 780.750000 799.660000 822.820000 828.600000 848.650000 885.310000 905.410000 915.050000 918.220000 977.170000 1048.590000 1120.470000 1212.360000 1201.630000 1164.580000 1113.250000 1054.720000 975.500000 997.170000 1043.030000 1066.690000 1065.930000 1066.360000 1105.300000 1119.750000 1119.900000 1008.090000 876.230000 780.960000 658.810000 576.630000 565.380000 553.280000 553.280000 559.380000 649.080000 771.230000 894.170000 963.240000 1008.020000 1146.880000 1246.620000 1282.610000 1208.050000 1209.650000 1267.730000 1318.100000 1267.450000 1144.970000 1112.660000 1159.400000 1195.730000
798.930000 815.830000 796.670000 795.580000 769.080000 843.500000 922.260000 971.840000 956.430000 965.280000 900.200000 829.370000 736.530000 625.030000 622.610000 622.880000 653.300000 726.640000 791.850000 816.720000 823.150000 804.980000 850.780000 912.770000 909.250000 941.180000 989.290000 942.700000 1016.340000 1042.610000 1091.020000 1168.510000 1272.530000 1371.210000 1384.120000 1319.820000 1169.890000 1087.970000 1101.710000 1161.340000 1230.300000 1255.740000 1250.410000 1224.070000 1249.030000 1218.720000 1168.580000 1039.730000 888.280000 758.250000 631.780000 573.600000 555.350000 553.280000 553.280000 587.830000 693.650000 831.540000 978.000000 1059.360000 1148.850000 1235.480000 1308.870000 1375.240000 1306.330000 1308.460000 1351.950000 1378.970000 1317.230000 1247.330000 1231.810000 1261.920000 1275.530000
692.040000 714.090000 709.590000 690.520000 715.820000 765.430000 811.280000 870.340000 873.970000 817.930000 773.570000 715.280000 640.860000 599.480000 608.410000 616.250000 667.520000 730.000000 800.040000 849.000000 902.380000 915.630000 923.420000 940.740000 984.860000 1056.700000 1060.260000 1021.330000 1026.530000 1102.450000 1240.830000 1305.010000 1383.490000 1475.550000 1436.040000 1272.290000 1202.050000 1259.760000 1268.070000 1285.420000 1306.900000 1324.360000 1333.290000 1297.850000 1258.520000 1228.550000 1165.070000 1051.630000 903.420000 756.700000 635.460000 569.890000 553.280000 553.280000 553.280000 614.960000 736.750000 891.730000 1044.720000 1152.150000 1222.520000 1320.460000 1420.750000 1443.920000 1401.260000 1425.990000 1444.200000 1459.890000 1401.200000 1346.360000 1328.280000 1346.920000 1366.850000
649.730000 649.730000 649.730000 644.790000 649.710000 665.010000 742.530000 761.020000 756.270000 731.620000 742.670000 680.660000 582.200000 564.470000 592.160000 654.330000 698.020000 706.440000 756.250000 814.420000 887.070000 955.520000 988.670000 1027.090000 1029.960000 1199.260000 1216.520000 1149.320000 1069.890000 1080.040000 1204.600000 1248.550000 1324.610000 1468.560000 1452.600000 1346.610000 1395.470000 1380.440000 1348.330000 1325.220000 1300.810000 1302.410000 1295.310000 1280.180000 1226.340000 1165.420000 1099.250000 1009.840000 862.900000 755.780000 658.480000 577.870000 553.280000 553.280000 553.280000 633.240000 779.700000 964.350000 1079.510000 1161.190000 1244.430000 1344.040000 1506.560000 1555.580000 1476.660000 1501.060000 1527.590000 1539.690000 1512.050000 1474.460000 1448.060000 1459.470000 1478.120000
705.620000 677.020000 670.220000 623.880000 623.880000 623.880000 623.880000 647.000000 671.360000 661.610000 655.600000 617.280000 562.490000 562.490000 648.390000 698.040000 750.280000 817.830000 855.100000 917.310000 963.770000 1066.100000 1163.800000 1181.770000 1150.800000 1203.430000 1335.880000 1286.960000 1182.990000 1202.700000 1299.760000 1391.350000 1521.400000 1576.130000 1598.520000 1545.270000 1479.780000 1398.250000 1348.110000 1305.210000 1275.970000 1236.090000 1224.100000 1192.780000 1117.170000 1076.460000 1045.240000 959.280000 865.640000 762.990000 667.840000 621.350000 553.280000 553.280000 553.280000 616.220000 768.460000 970.590000 1059.210000 1128.700000 1242.020000 1332.060000 1485.820000 1516.820000 1419.600000 1497.290000 1629.500000 1755.680000 1715.740000 1675.710000 1657.380000 1639.260000 1671.100000
766.610000 746.310000 767.960000 671.300000 655.160000 658.650000 645.970000 611.160000 590.150000 599.070000 593.020000 572.460000 562.490000 602.440000 667.850000 730.700000 768.440000 839.870000 850.830000 929.780000 1050.480000 1166.750000 1257.840000 1331.110000 1305.400000 1331.000000 1451.380000 1407.900000 1280.930000 1229.710000 1368.630000 1491.400000 1604.610000 1700.000000 1687.990000 1587.350000 1504.060000 1418.540000 1387.270000 1345.210000 1270.930000 1242.850000 1107.430000 1074.170000 1006.710000 962.710000 911.550000 876.140000 839.340000 756.330000 666.520000 619.690000 597.530000 553.280000 553.280000 598.360000 750.140000 894.270000 992.180000 1074.950000 1201.510000 1312.450000 1377.160000 1327.300000 1289.630000 1389.380000 1604.920000 1771.940000 1801.230000 1772.160000 1782.090000 1781.780000 1714.170000
954.250000 862.640000 855.400000 756.070000 766.170000 791.330000 787.810000 724.240000 668.290000 590.150000 576.190000 562.490000 562.490000 631.670000 695.950000 752.810000 790.240000 852.780000 889.660000 938.940000 1041.860000 1148.250000 1220.450000 1400.400000 1486.110000 1515.480000 1549.440000 1491.400000 1423.280000 1390.960000 1519.540000 1599.540000 1710.130000 1718.900000 1684.630000 1582.070000 1477.330000 1469.190000 1450.360000 1441.520000 1437.190000 1440.430000 1325.500000 1161.200000 1094.950000 938.920000 805.860000 746.010000 666.300000 670.760000 651.610000 590.140000 599.670000 553.280000 553.280000 576.380000 730.010000 871.760000 987.430000 1075.040000 1162.910000 1247.930000 1265.130000 1196.320000 1180.710000 1322.320000 1503.360000 1649.670000 1755.280000 1769.690000 1756.890000 1770.620000 1666.090000
1092.040000 980.590000 885.890000 771.820000 796.420000 849.980000 831.920000 800.460000 720.710000 655.930000 562.490000 562.490000 562.490000 634.170000 723.220000 758.460000 787.580000 841.150000 880.360000 918.860000 1035.070000 1092.110000 1193.100000 1353.220000 1481.050000 1556.380000 1613.430000 1605.940000 1541.500000 1519.640000 1603.050000 1732.610000 1731.360000 1686.760000 1632.260000 1594.670000 1532.000000 1496.660000 1530.560000 1559.820000 1503.330000 1499.730000 1370.210000 1305.910000 1168.060000 1002.170000 910.160000 799.820000 664.510000 639.560000 616.410000 581.130000 559.490000 553.280000 553.280000 553.280000 700.720000 859.320000 962.150000 1051.930000 1125.780000 1152.360000 1089.590000 1080.120000 1174.790000 1318.310000 1425.800000 1516.700000 1626.980000 1717.960000 1736.420000 1706.210000 1671.060000
1119.830000 969.740000 876.160000 813.370000 771.820000 891.070000 870.180000 826.150000 754.750000 688.770000 595.460000 562.490000 562.490000 610.250000 728.780000 749.680000 766.130000 804.040000 865.450000 994.950000 1072.920000 1190.480000 1258.520000 1351.530000 1479.940000 1556.880000 1599.590000 1622.200000 1621.620000 1639.340000 1609.920000 1720.250000 1749.510000 1733.750000 1701.040000 1658.380000 1580.970000 1556.420000 1518.010000 1498.480000 1465.490000 1423.550000 1425.000000 1308.370000 1162.730000 1106.630000 997.270000 807.520000 712.950000 781.910000 742.370000 663.190000 571.240000 553.280000 553.280000 554.460000 612.930000 741.580000 865.120000 934.170000 962.570000 952.560000 896.830000 955.280000 1103.470000 1193.760000 1302.130000 1428.060000 1523.960000 1670.510000 1638.100000 1518.390000 1473.120000
1135.880000 1031.850000 1025.460000 957.560000 885.490000 911.000000 902.240000 832.860000 766.830000 702.840000 659.320000 562.490000 562.490000 609.140000 725.070000 727.690000 806.780000 825.000000 893.480000 1015.150000 1114.080000 1215.640000 1312.580000 1378.690000 1438.640000 1467.840000 1494.760000 1546.230000 1613.720000 1650.000000 1648.310000 1697.340000 1761.850000 1751.120000 1733.180000 1724.560000 1683.760000 1619.760000 1514.400000 1383.690000 1354.170000 1310.370000 1379.340000 1323.620000 1258.050000 1141.150000 958.230000 756.800000 865.580000 875.160000 801.050000 723.570000 618.190000 560.240000 553.280000 562.380000 592.660000 637.150000 766.730000 770.450000 785.830000 806.480000 864.860000 916.300000 1011.330000 1087.520000 1157.260000 1278.920000 1452.140000 1562.090000 1523.760000 1448.540000 1329.990000
1248.820000 1224.200000 1175.030000 1093.720000 1043.660000 961.540000 896.510000 828.090000 779.500000 726.270000 659.010000 562.490000 562.490000 571.600000 660.280000 694.730000 805.440000 825.000000 891.600000 1010.740000 1108.510000 1217.280000 1307.590000 1358.800000 1377.830000 1384.340000 1380.850000 1420.450000 1471.180000 1561.060000 1568.040000 1636.530000 1715.900000 1758.480000 1757.500000 1744.060000 1687.960000 1612.190000 1544.680000 1414.600000 1288.360000 1195.510000 1238.800000 1253.780000 1203.530000 1034.700000 844.440000 891.940000 984.710000 981.930000 911.180000 820.700000 721.830000 639.800000 553.280000 563.540000 592.940000 630.170000 650.780000 748.410000 820.010000 878.140000 959.320000 1028.120000 1100.810000 1172.070000 1199.950000 1291.080000 1407.100000 1387.440000 1432.190000 1376.470000 1295.180000
1436.520000 1350.530000 1255.890000 1181.370000 1094.310000 972.570000 827.810000 804.190000 779.320000 728.490000 669.440000 580.440000 562.490000 562.490000 653.020000 720.670000 772.980000 820.160000 899.200000 991.250000 1080.530000 1179.490000 1248.630000 1270.550000 1276.940000 1258.760000 1256.440000 1296.440000 1326.140000 1388.810000 1414.130000 1579.590000 1754.160000 1859.650000 1820.560000 1833.290000 1818.920000 1723.070000 1613.090000 1527.290000 1383.370000 1166.080000 1085.180000 1083.720000 1032.950000 906.790000 936.140000 1028.070000 1106.430000 1106.710000 1018.530000 895.520000 842.160000 750.370000 590.210000 553.280000 584.940000 600.690000 631.780000 714.980000 767.370000 815.750000 932.250000 1025.080000 1030.360000 1129.760000 1204.870000 1119.380000 1217.080000 1204.560000 1319.990000 1315.060000 1288.360000
1433.500000 1296.230000 1179.720000 1106.540000 991.600000 884.710000 844.000000 796.380000 731.870000 718.190000 652.920000 570.610000 562.490000 562.490000 636.930000 697.140000 750.590000 802.050000 848.110000 969.240000 1032.000000 1091.000000 1134.990000 1155.120000 1156.790000 1126.640000 1120.310000 1180.300000 1253.890000 1370.820000 1531.960000 1651.030000 1787.390000 1925.040000 1939.660000 1949.850000 1941.150000 1831.840000 1706.040000 1558.800000 1387.060000 1219.030000 1078.910000 1011.610000 1003.430000 1049.130000 1053.180000 1115.940000 1193.700000 1183.770000 1096.890000 1003.540000 907.240000 752.800000 569.920000 540.030000 561.560000 576.000000 603.300000 601.610000 631.860000 729.090000 880.640000 947.210000 926.680000 1031.000000 1048.150000 1043.740000 1124.950000 1120.620000 1176.450000 1122.750000 1042.900000
1297.280000 1244.550000 1184.170000 1114.250000 1082.950000 1017.220000 931.110000 827.340000 721.560000 663.090000 641.750000 564.750000 562.490000 562.490000 619.180000 675.000000 693.920000 781.100000 842.880000 854.460000 924.080000 966.910000 997.240000 987.750000 972.440000 1011.220000 1129.290000 1200.000000 1321.920000 1406.330000 1449.630000 1622.540000 1770.330000 1906.130000 1945.380000 1956.650000 1901.660000 1773.970000 1659.240000 1504.860000 1324.820000 1203.660000 1195.040000 1174.650000 1149.640000 1187.490000 1192.670000 1240.340000 1247.960000 1199.520000 1120.190000 1022.100000 887.990000 680.300000 662.050000 540.030000 540.030000 553.000000 563.990000 568.430000 557.600000 635.400000 770.550000 787.640000 757.450000 869.850000 898.330000 975.350000 971.070000 1113.670000 1138.230000 1099.090000 1041.920000
1481.250000 1389.220000 1321.400000 1240.220000 1193.590000 1066.600000 910.530000 832.040000 731.640000 676.080000 618.030000 562.490000 562.490000 562.490000 613.720000 675.000000 670.680000 722.500000 780.410000 759.800000 790.080000 833.010000 865.300000 910.710000 983.630000 1036.230000 1036.010000 1098.550000 1210.080000 1255.160000 1415.910000 1593.930000 1734.460000 1750.250000 1788.290000 1889.090000 1816.050000 1674.810000 1595.940000 1524.920000 1408.180000 1389.440000 1358.110000 1332.040000 1243.280000 1342.830000 1357.040000 1325.400000 1273.350000 1233.070000 1131.520000 987.640000 912.050000 840.950000 767.940000 637.090000 553.460000 530.020000 533.110000 537.180000 529.520000 542.280000 583.150000 613.310000 731.670000 731.670000 777.750000 894.240000 1017.540000 1116.400000 1124.210000 1081.510000 987.710000
1607.420000 1511.280000 1415.570000 1347.620000 1267.010000 1137.560000 1026.270000 945.570000 806.850000 705.040000 625.560000 583.430000 562.490000 562.490000 569.950000 652.050000 651.850000 680.030000 713.310000 742.170000 777.000000 818.850000 879.460000 1015.540000 1090.250000 1163.860000 1157.270000 1170.180000 1170.020000 1346.530000 1407.300000 1531.440000 1594.580000 1633.190000 1781.640000 1915.360000 1815.340000 1673.830000 1623.140000 1538.150000 1548.770000 1535.230000 1477.590000 1441.300000 1374.450000 1427.800000 1497.980000 1430.940000 1334.000000 1327.650000 1222.580000 1093.260000 1016.140000 974.070000 869.430000 761.290000 675.320000 508.340000 508.340000 513.070000 507.020000 521.200000 596.530000 726.180000 823.820000 893.240000 958.660000 1006.500000 1103.380000 1129.440000 1140.450000 1105.700000 1072.140000
1572.790000 1504.150000 1430.680000 1353.860000 1253.440000 1195.970000 1115.150000 1000.420000 837.330000 714.800000 637.390000 606.410000 562.490000 562.490000 569.160000 600.300000 633.230000 678.570000 751.560000 836.100000 863.090000 938.210000 984.460000 1097.800000 1198.330000 1281.950000 1294.030000 1303.560000 1324.800000 1375.690000 1429.610000 1496.700000 1588.570000 1664.930000 1822.350000 1959.130000 1858.830000 1695.990000 1664.480000 1651.310000 1585.250000 1578.450000 1574.410000 1545.670000 1450.660000 1511.530000 1606.070000 1521.880000 1427.540000 1399.970000 1361.740000 1227.390000 1136.310000 1108.060000 1044.900000 916.530000 791.710000 639.710000 545.290000 454.430000 475.490000 497.910000 526.910000 718.150000 840.860000 952.990000 1011.190000 1082.370000 1124.430000 1105.700000 1090.030000 1073.830000 1049.220000
1493.050000 1412.000000 1338.060000 1259.530000 1169.810000 1161.710000 1116.240000 1022.770000 848.790000 725.960000 671.290000 594.350000 562.490000 562.490000 562.490000 589.370000 628.650000 697.050000 779.070000 862.610000 957.120000 1042.230000 1130.820000 1216.700000 1315.740000 1396.470000 1433.270000 1447.930000 1459.620000 1493.990000 1492.060000 1535.560000 1597.150000 1681.920000 1816.250000 1924.600000 1852.950000 1755.560000 1737.010000 1647.120000 1526.220000 1523.440000 1524.640000 1571.920000 1590.420000 1653.890000 1709.130000 1613.780000 1490.650000 1407.410000 1376.620000 1341.040000 1226.580000 1165.090000 1127.120000 1021.510000 943.680000 822.970000 647.270000 548.370000 453.690000 469.940000 485.630000 668.580000 810.950000 910.310000 941.230000 1081.510000 1124.160000 1086.350000 996.270000 967.000000 957.100000
1370.410000 1214.780000 1174.990000 1096.870000 1020.160000 1046.770000 1068.630000 1028.830000 898.790000 769.200000 682.650000 646.590000 562.490000 562.490000 562.490000 570.890000 649.260000 700.380000 775.570000 869.930000 959.610000 1067.460000 1149.560000 1254.510000 1353.100000 1431.710000 1481.770000 1505.620000 1545.830000 1609.690000 1585.490000 1683.380000 1721.410000 1784.190000 1853.670000 1811.020000 1753.890000 1667.980000 1679.620000 1666.930000 1498.230000 1427.100000 1448.490000 1578.370000 1617.670000 1718.070000 1758.390000 1628.400000 1506.820000 1415.450000 1343.810000 1291.440000 1227.860000 1154.350000 1112.310000 1021.230000 951.800000 885.230000 759.920000 643.070000 505.030000 450.950000 453.180000 505.110000 735.180000 806.230000 865.840000 1026.870000 1086.170000 1071.100000 901.620000 833.520000 821.390000